ply
format ascii 1.0
comment VCGLIB generated
element vertex 1975
property float x
property float y
property float z
element face 0
property list uchar int vertex_indices
end_header
4.5 57.6719 -15.9499 
4.5 56.9531 -15.7893 
4.5 56.25 -15.878 
4.5 55.5313 -15.8038 
4.5 54.8125 -15.8866 
4.5 54.0938 -15.7643 
4.5 53.3906 -15.7939 
4.5 52.6719 -15.7629 
4.5 51.9688 -15.6916 
4.125 51.0625 -2.42177 
4.1875 50.375 -4.50394 
4.1875 49.6719 -4.54377 
4.1875 48.9688 -4.52314 
4.25 48.25 -4.52466 
4.25 47.5469 -4.51814 
4.25 46.8438 -4.58614 
4.25 46.125 -4.5064 
4.25 45.4219 -4.50614 
4.25 44.7188 -4.48538 
4.25 44.0156 -4.53418 
4.25 43.3125 -4.50265 
4.25 42.5938 -4.54562 
4.25 41.8906 -4.49836 
4.25 41.1719 -4.50546 
4.25 40.4688 -4.57215 
4.25 39.7656 -4.85551 
4.25 39.0469 -4.9538 
4.25 38.3438 -5.02653 
4.25 37.625 -5.11897 
4.25 36.9219 -5.11858 
4.3125 36.2188 -7.63677 
4.375 35.5156 -7.61297 
4.375 34.7969 -7.73869 
4.3125 34.0938 -6.83267 
4.5625 33.375 -15.1889 
4.5625 32.6719 -15.151 
4.5625 31.9531 -15.1276 
4.5625 31.2344 -15.1186 
4.5625 30.5313 -15.012 
4.5625 29.8125 -14.021 
4.5625 29.0938 -14.4153 
4.5625 28.375 -14.4047 
4.25 27.7188 -3.15642 
4.25 27.0156 -3.1499 
4.25 26.2969 -3.10806 
4.25 25.5938 -3.05336 
4.25 24.8906 -2.99319 
4.25 24.1875 -2.86012 
4.25 23.4688 -2.92148 
4.25 22.7656 -2.86244 
4.25 22.0469 -2.88306 
4.25 21.3438 -2.83566 
4.25 20.6406 -2.71791 
4.25 19.9375 -2.77951 
4.3125 19.9063 -5.86507 
4.25 19.2344 -2.8708 
4.25 18.5313 -2.93409 
4.25 17.8125 -3.22178 
4.3125 17.1094 -3.69109 
4.3125 16.4063 -3.68074 
4.3125 15.6875 -3.73738 
4.3125 14.9844 -3.74111 
4.3125 14.2813 -3.72195 
4.3125 13.5625 -3.79222 
4.3125 12.8594 -3.74224 
4.3125 12.1563 -3.75178 
4.3125 11.4531 -3.74597 
4.3125 10.7344 -3.75455 
4.3125 10.0313 -3.72534 
4.3125 9.32813 -3.70321 
4.3125 8.625 -3.68069 
4.3125 7.92188 -3.69527 
4.25 7.28125 -0.813889 
4.25 6.57813 -0.645401 
4.25 5.875 -0.621193 
4.25 5.17188 -0.656403 
4.25 4.48438 -0.498978 
4.25 3.78125 -0.65847 
4.25 3.07813 -0.647743 
4.25 2.375 -0.65889 
4.1875 1.70313 0.535851 
4.1875 1 0.905098 
4.1875 0.296875 0.800323 
4.25 -0.421875 0.329346 
4.25 -1.125 0.307884 
4.25 -1.82813 0.321869 
4.25 -2.53125 0.283836 
4.25 -3.23438 0.30603 
4.25 -3.9375 0.291252 
4.25 -4.64063 0.271744 
4.25 -5.32813 0.34491 
4.25 -6.03125 0.353592 
4.25 -6.73438 0.328018 
4.25 -7.4375 0.352859 
4.25 -8.14063 0.348267 
4.25 -8.85938 0.38916 
4.25 -9.5625 0.340172 
4.25 -10.25 0.3815 
4.25 -10.9531 0.385834 
4.25 -11.6563 0.428146 
4.25 -12.3594 0.418556 
4.25 -13.0781 0.439346 
4.25 -13.7656 0.475464 
4.25 -14.4688 0.511826 
4.25 -15.1719 0.518524 
4.25 -15.875 0.550835 
4.25 -16.5781 0.496269 
4.25 -17.2813 0.524529 
4.25 -17.9844 0.605537 
4.25 -18.6875 0.544975 
4.25 -19.3906 0.544601 
4.25 -20.0938 0.539543 
4.3125 -20.7969 0.557549 
4.3125 -21.5156 0.556091 
4.3125 -22.2031 0.619446 
4.25 -22.875 1.28902 
4.25 -23.5625 1.34347 
4.3125 -24.2969 0.677689 
3.875 -24.2188 16.212 
3.9375 -24.375 12.9906 
3.9375 -25.0781 12.9138 
3.9375 -25.7656 13.3663 
3.9375 -26.4531 13.3999 
3.9375 -27.1406 13.4116 
3.9375 -27.8438 13.4286 
3.9375 -28.5313 13.4188 
3.9375 -29.2031 13.8031 
3.9375 -29.9063 13.7992 
3.9375 -30.5938 14.1272 
3.9375 -31.2813 14.1089 
3.9375 -31.9844 14.0686 
3.9375 -32.6719 14.0663 
3.9375 -33.375 14.0543 
3.9375 -34.1094 13.4749 
3.9375 -34.8125 13.4415 
3.9375 -35.5 13.4384 
3.9375 -36.1875 13.6023 
3.9375 -36.7813 15.3717 
3.9375 -37.4531 15.4843 
4 -37.6406 12.6111 
3.875 -38.1094 16.2749 
4.4375 -39.2969 -2.59721 
4.4375 -40 -2.55793 
4.4375 -40.6875 -2.38584 
4.4375 -41.4063 -2.39019 
4.4375 -42.1094 -2.45902 
4.4375 -42.8281 -2.61227 
4.4375 -43.5469 -2.74245 
4.4375 -44.2813 -3.15115 
4.4375 -44.9844 -3.14365 
4.4375 -45.7031 -3.10825 
4.4375 -46.4063 -3.1118 
4.4375 -47.1094 -3.0034 
4.4375 -47.8125 -3.04165 
4.4375 -48.4844 -2.56641 
4.8125 -50.0781 -15.0175 
4.8125 -50.7969 -15.0938 
4.8125 -51.5156 -15.0923 
4.8125 -52.2344 -15.04 
4.8125 -52.9531 -15.0375 
4.8125 -53.6719 -15.1219 
4.8125 -54.3906 -15.1159 
4.8125 -55.0625 -14.6564 
4.8125 -55.75 -14.3264 
4.8125 -56.4531 -14.2578 
4.8125 -57.25 -15.2385 
4.8125 -57.9531 -15.1386 
4.8125 -58.6719 -15.2247 
4.875 -59.3906 -15.1908 
4.875 -60.1094 -15.2634 
5.25 -60.2031 -15.2528 
5.25 -59.4844 -15.1754 
5.25 -58.7656 -15.1872 
5.25 -58.0313 -15.1986 
5.25 -57.3281 -15.2094 
5.25 -56.6094 -15.167 
5.25 -55.8281 -14.4145 
5.25 -55.1719 -14.9386 
5.25 -54.4688 -15.2511 
5.25 -53.75 -15.1275 
5.25 -53.0313 -15.0681 
5.25 -52.3125 -15.0909 
5.25 -51.5938 -14.9959 
5.25 -50.875 -15.0776 
5.25 -50.125 -14.5158 
4.875 -48.5469 -2.53565 
5.1875 -49.375 -14.2031 
4.875 -47.8906 -3.11043 
4.875 -47.1875 -3.06951 
4.875 -46.4844 -3.14054 
4.875 -45.7813 -3.0765 
4.875 -45.0781 -3.13147 
4.875 -44.375 -3.08915 
4.875 -43.6406 -2.70046 
4.875 -42.9375 -2.73473 
4.875 -42.2031 -2.46204 
4.875 -41.5 -2.40321 
4.875 -40.7813 -2.41374 
4.875 -40.0938 -2.53822 
4.375 -38.2031 16.282 
4.875 -39.3906 -2.60992 
4.4375 -37.7344 12.648 
4.4375 -37.0156 12.8841 
4.4375 -36.2969 13.3848 
4.375 -35.4688 15.4308 
4.375 -34.7813 15.429 
4.4375 -34.1875 13.4861 
4.4375 -33.4688 13.9685 
4.4375 -32.7656 14.0528 
4.4375 -32.0781 14.0726 
4.4375 -31.375 14.1029 
4.4375 -30.6875 14.0935 
4.4375 -30 13.7681 
4.4375 -29.3125 13.7819 
4.4375 -28.625 13.4572 
4.4375 -27.9375 13.4496 
4.4375 -27.25 13.4202 
4.4375 -26.5469 13.4087 
4.4375 -25.8594 13.36 
4.4375 -25.1875 12.8752 
4.375 -24.3125 16.2754 
4.4375 -24.4844 12.9217 
4.8125 -24.3906 0.800751 
4.75 -23.6563 1.43417 
4.75 -22.9688 1.40717 
4.8125 -22.2969 0.677666 
4.8125 -21.6094 0.61142 
4.8125 -20.8906 0.580429 
4.8125 -20.1875 0.569839 
4.8125 -19.4844 0.572243 
4.8125 -18.7813 0.58017 
4.8125 -18.0781 0.611046 
4.8125 -17.3906 0.572586 
4.8125 -16.6719 0.584213 
4.8125 -15.9688 0.546379 
4.8125 -15.2656 0.516411 
4.8125 -14.5625 0.514397 
4.8125 -13.8594 0.50769 
4.8125 -13.1719 0.471817 
4.8125 -12.4688 0.488487 
4.8125 -11.7656 0.44825 
4.8125 -11.0625 0.478165 
4.8125 -10.3594 0.421371 
4.8125 -9.65625 0.427216 
4.8125 -8.9375 0.438393 
4.8125 -8.25 0.367767 
4.8125 -7.53125 0.424828 
4.8125 -6.82813 0.322449 
4.8125 -6.125 0.353165 
4.8125 -5.4375 0.419052 
4.8125 -4.73438 0.358116 
4.8125 -4.03125 0.334946 
4.8125 -3.32813 0.334702 
4.8125 -2.625 0.327332 
4.8125 -1.90625 0.342865 
4.8125 -1.21875 0.328941 
4.8125 -0.515625 0.287949 
4.8125 0.203125 0.873947 
4.8125 0.90625 0.763954 
4.8125 1.60938 0.616753 
4.8125 2.28125 -0.650528 
4.8125 2.98438 -0.639427 
4.8125 3.6875 -0.665443 
4.8125 4.39063 -0.615974 
4.8125 5.09375 -0.641052 
4.8125 5.79688 -0.645897 
4.8125 6.5 -0.652779 
4.875 7.20313 -0.858788 
4.9375 7.84375 -3.72514 
4.9375 8.54688 -3.71068 
4.9375 9.25 -3.71832 
4.9375 9.95313 -3.74302 
4.9375 10.6719 -3.72499 
4.9375 11.375 -3.7313 
4.9375 12.0781 -3.72217 
4.9375 12.7813 -3.73007 
4.9375 13.4844 -3.74255 
4.9375 14.1875 -3.69714 
4.9375 14.8906 -3.71143 
4.9375 15.5938 -3.73022 
4.9375 16.2969 -3.71122 
4.9375 17.0156 -3.70667 
4.9375 17.7188 -3.25231 
4.9375 18.4375 -2.94489 
5 18.3906 -6.5022 
4.9375 19.1406 -2.89925 
5.0625 19.0781 -7.19574 
4.875 19.8438 -2.75816 
5 19.7969 -6.49757 
4.875 20.5469 -2.73886 
4.9375 21.25 -2.82402 
4.875 21.9531 -2.73674 
4.9375 22.6563 -2.8284 
4.9375 23.3594 -2.92501 
4.9375 24.0625 -2.95865 
4.9375 24.7656 -3.00418 
4.9375 25.4688 -3.0222 
4.9375 26.1719 -3.07441 
4.9375 26.875 -3.15382 
4.9375 27.5781 -3.14282 
5.25 27.5156 -14.7323 
5.25 28.2344 -14.4011 
5.25 28.9375 -14.4318 
5.25 29.6563 -14.0102 
5.25 30.375 -14.8014 
5.25 31.0781 -15.1005 
5.25 31.7969 -15.1218 
5.25 32.5156 -15.1604 
5.25 33.2188 -15.1235 
5 33.9375 -6.88988 
5.25 33.9375 -15.6559 
5.0625 34.6406 -7.67364 
5.0625 35.3438 -7.69044 
5.0625 36.0469 -7.67948 
5.0625 36.75 -7.65784 
5.0625 37.4531 -7.67836 
5.0625 38.1719 -7.63108 
5.0625 38.875 -7.68587 
5 39.5781 -5.16601 
5.0625 39.5938 -7.63018 
5 40.2813 -5.00508 
4.9375 40.9844 -4.48914 
4.9375 41.6875 -4.49963 
4.9375 42.4063 -4.51712 
4.9375 43.1094 -4.49677 
4.9375 43.8125 -4.51345 
4.9375 44.5156 -4.5373 
4.9375 45.2188 -4.51567 
4.9375 45.9219 -4.49364 
4.9375 46.625 -4.4986 
4.9375 47.3281 -4.49069 
4.9375 48.0313 -4.4824 
4.9375 48.75 -4.48863 
4.9375 49.4531 -4.50949 
4.9375 50.1563 -4.51473 
4.875 50.8438 -2.49013 
5.3125 51.75 -15.7553 
5.3125 52.4688 -15.7592 
5.3125 53.1719 -15.7928 
5.3125 53.8906 -15.7959 
5.3125 54.5938 -15.8211 
5.3125 55.3125 -15.7859 
5.3125 56.0313 -15.8326 
5.3125 56.7344 -15.849 
5.3125 57.4531 -15.8599 
5.3125 58.1563 -15.8806 
5.3125 58.875 -15.888 
5.3125 59.5781 -15.9326 
5.3125 60.2969 -15.9168 
5.875 60.125 -15.9043 
5.9375 59.4063 -15.9049 
5.9375 58.7031 -15.8552 
5.9375 57.9844 -15.8426 
5.9375 57.2656 -15.7845 
5.9375 56.5469 -15.8209 
5.9375 55.8281 -15.8169 
5.9375 55.1094 -15.7926 
5.9375 54.4063 -15.7552 
5.9375 53.7031 -15.6699 
5.9375 52.9844 -15.7865 
5.9375 52.2656 -15.7953 
5.9375 51.5625 -15.6864 
5.5625 50.6563 -2.38865 
5.625 49.9688 -4.4581 
5.625 49.2656 -4.52747 
5.625 48.5625 -4.49662 
5.625 47.8594 -4.49029 
5.625 47.1563 -4.49847 
5.625 46.4375 -4.47122 
5.625 45.7344 -4.53604 
5.625 45.0313 -4.50552 
5.625 44.3281 -4.4671 
5.625 43.6094 -4.52052 
5.625 42.9063 -4.52371 
5.625 42.2031 -4.52389 
5.625 41.5 -4.49865 
5.625 40.7969 -4.51802 
5.625 40.0781 -3.31117 
5.75 40.1094 -7.61527 
5.75 39.3906 -7.64124 
5.75 38.6875 -7.67936 
5.75 37.9688 -7.65955 
5.75 37.2656 -7.62175 
5.75 36.5625 -7.64099 
5.75 35.8438 -7.62247 
5.75 35.1406 -7.60339 
5.75 34.4375 -7.63636 
5.75 33.7188 -6.89736 
5.9375 33.0156 -15.0586 
5.9375 32.3125 -15.0803 
5.9375 31.5938 -15.0891 
5.9375 30.8906 -15.0999 
5.9375 30.1719 -14.7632 
5.9375 29.4531 -14.4662 
5.9375 28.75 -14.4109 
5.9375 28.0313 -14.445 
5.625 27.375 -3.10645 
5.625 26.6719 -3.20219 
5.625 25.9688 -3.09764 
5.625 25.2656 -2.91787 
5.625 24.5625 -2.66532 
5.625 23.8594 -2.95899 
5.625 23.1563 -2.87274 
5.625 22.4375 -3.04068 
5.625 21.7344 -2.7239 
5.625 21.0313 -2.8437 
5.625 20.3281 -2.70081 
5.625 19.625 -2.74473 
5.75 19.5625 -6.84176 
5.625 18.9219 -2.8483 
5.625 18.2188 -3.17602 
5.6875 17.5 -3.2812 
5.6875 16.7813 -3.73531 
5.6875 16.0781 -3.70971 
5.6875 15.375 -3.69859 
5.6875 14.6563 -3.73956 
5.6875 13.9531 -3.74271 
5.6875 13.25 -3.70781 
5.6875 12.5469 -3.76256 
5.6875 11.8438 -3.69693 
5.6875 11.1406 -3.75837 
5.6875 10.4375 -3.72192 
5.6875 9.73438 -3.75237 
5.6875 9.03125 -3.67761 
5.6875 8.3125 -3.69231 
5.6875 7.60938 -3.74396 
5.625 6.96875 -0.912262 
5.625 6.26563 -0.671181 
5.625 5.5625 -0.661598 
5.625 4.85938 -0.651749 
5.625 4.15625 -0.641365 
5.625 3.45313 -0.660576 
5.625 2.75 -0.641899 
5.625 2.04688 -0.637901 
5.5625 1.375 0.644463 
5.5625 0.6875 0.853905 
5.5625 -0.015625 0.904259 
5.625 -0.734375 0.413605 
5.625 -1.4375 0.477303 
5.625 -2.14063 0.429047 
5.625 -2.84375 0.381073 
5.625 -3.54688 0.335968 
5.625 -4.25 0.401291 
5.625 -4.95313 0.479294 
5.625 -5.65625 0.415886 
5.625 -6.35938 0.445084 
5.625 -7.0625 0.432327 
5.625 -7.76563 0.489815 
5.625 -8.46875 0.490273 
5.625 -9.17188 0.426353 
5.625 -9.875 0.699768 
5.625 -10.5781 0.761398 
5.625 -11.2813 0.783455 
5.625 -11.9844 0.536652 
5.625 -12.7031 0.504829 
5.625 -13.3906 0.555649 
5.625 -14.1094 0.539719 
5.625 -14.8125 0.569092 
5.625 -15.5156 0.576302 
5.625 -16.2031 0.636192 
5.625 -16.9063 0.60408 
5.625 -17.6094 0.647537 
5.625 -18.3125 0.686249 
5.625 -19.0156 0.623405 
5.625 -19.7188 0.648262 
5.625 -20.4219 0.663483 
5.625 -21.125 0.676582 
5.625 -21.8281 0.690125 
5.625 -22.5313 0.751297 
5.625 -23.2031 1.44648 
5.625 -23.9063 1.429 
5.6875 -24.6406 0.733566 
5.1875 -24.5469 16.263 
5.3125 -24.7188 13.0166 
5.3125 -25.4219 12.8501 
5.3125 -26.0938 13.3674 
5.3125 -26.7813 13.4038 
5.3125 -27.4688 13.4307 
5.3125 -28.1719 13.4331 
5.3125 -28.8594 13.461 
5.3125 -29.5469 13.8008 
5.3125 -30.2344 13.7969 
5.25 -30.8594 15.142 
5.25 -31.5469 15.3534 
5.3125 -32.3281 13.7908 
5.3125 -33.0313 13.726 
5.3125 -33.7188 13.6544 
5.3125 -34.4375 13.4539 
5.3125 -35.1406 13.4381 
5.3125 -35.8281 13.4056 
5.3125 -36.5313 13.4108 
5.375 -37.2656 12.8257 
5.375 -37.9688 12.6267 
5.25 -38.4375 16.348 
5.8125 -39.625 -2.53864 
5.8125 -40.3281 -2.6115 
5.8125 -41.0469 -2.66349 
5.8125 -41.75 -2.65761 
5.8125 -42.4688 -2.67118 
5.8125 -43.1719 -2.61494 
5.8125 -43.875 -2.68269 
5.8125 -44.6094 -3.06131 
5.8125 -45.3125 -3.10607 
5.8125 -46.0313 -3.11284 
5.8125 -46.7344 -3.11184 
5.8125 -47.4375 -3.07035 
5.8125 -48.125 -2.95887 
6.125 -49.6406 -14.3074 
6.1875 -50.3906 -14.6525 
6.1875 -51.125 -14.9949 
6.1875 -51.8438 -15.0351 
6.1875 -52.5625 -15.12 
6.1875 -53.2813 -15.0875 
6.1875 -54 -15.2839 
6.1875 -54.7188 -15.1684 
6.1875 -55.4219 -15.1845 
6.1875 -56.1406 -15.1825 
6.1875 -56.875 -15.2743 
6.1875 -57.5781 -15.2043 
6.1875 -58.2969 -15.1038 
6.1875 -59.0156 -15.1874 
6.1875 -59.7188 -15.1558 
6.1875 -60.4375 -15.1714 
6.5 -60.3281 -15.2396 
6.5 -59.6094 -15.197 
6.5 -58.8906 -15.2161 
6.5 -58.1563 -15.108 
6.5 -57.4375 -15.1412 
6.5 -56.7344 -15.2112 
6.5 -56.0156 -15.2386 
6.5 -55.2969 -15.2007 
6.5 -54.4688 -13.6288 
6.5 -53.8594 -15.1409 
6.5 -53.1563 -15.1587 
6.5 -52.4219 -15.0916 
6.5 -51.7188 -15.0765 
6.5 -51 -15.0107 
6.5 -50.2813 -15.0096 
6.5 -49.5313 -14.4401 
6.1875 -48 -2.91932 
6.1875 -47.3125 -3.11528 
6.1875 -46.6094 -3.12663 
6.1875 -45.9063 -3.15255 
6.1875 -45.2031 -3.1256 
6.1875 -44.5 -3.14331 
6.1875 -43.7656 -2.69727 
6.1875 -43.0469 -2.68422 
6.1875 -42.3438 -2.64097 
6.1875 -41.625 -2.65717 
6.1875 -40.9219 -2.61246 
6.1875 -40.2188 -2.63267 
5.625 -38.3281 16.2448 
5.75 -38.5313 12.9856 
6.1875 -39.5469 -3.08599 
5.75 -37.8594 12.653 
5.6875 -37.1094 13.3349 
5.6875 -36.4063 13.404 
5.6875 -35.7188 13.414 
5.6875 -35.0156 13.4395 
5.6875 -34.3281 13.4555 
5.6875 -33.5938 13.9852 
5.6875 -32.9063 13.8101 
5.6875 -32.2188 13.6825 
5.6875 -31.5156 13.7524 
5.6875 -30.8125 13.8127 
5.625 -30.0313 15.3243 
5.6875 -29.3438 15.2583 
5.6875 -28.75 13.5428 
5.6875 -28.0625 13.4531 
5.6875 -27.375 13.4233 
5.6875 -26.6719 13.3914 
5.6875 -25.9844 13.355 
5.75 -25.3125 12.8176 
5.75 -24.5938 13.0238 
6.0625 -24.5313 0.661041 
6.0625 -23.7969 1.39653 
6.0625 -23.0781 1.36932 
6.0625 -22.4219 0.686752 
6.0625 -21.7188 0.687798 
6.0625 -21.0156 0.671967 
6.0625 -20.3125 0.696434 
6.0625 -19.625 0.674049 
6.0625 -18.9063 0.641891 
6.0625 -18.2031 0.70208 
6.0625 -17.5 0.660851 
6.0625 -16.7969 0.600006 
6.0625 -16.0938 0.666786 
6.0625 -15.3906 0.596878 
6.0625 -14.6875 0.589783 
6.0625 -13.9844 0.587883 
6.0625 -13.2813 0.571617 
6.0625 -12.5781 0.550705 
6.0625 -11.875 0.540268 
6.0625 -11.1563 0.8545 
6.0625 -10.4688 0.819855 
6.0625 -9.76563 0.608528 
6.0625 -9.0625 0.54258 
6.0625 -8.35938 0.476852 
6.0625 -7.65625 0.458954 
6.0625 -6.95313 0.52639 
6.0625 -6.26563 0.411942 
6.0625 -5.54688 0.462555 
6.0625 -4.84375 0.506187 
6.0625 -4.14063 0.438179 
6.0625 -3.45313 0.417816 
6.0625 -2.73438 0.445374 
6.0625 -2.04688 0.438431 
6.0625 -1.32813 0.371742 
6.0625 -0.625 0.442902 
6.0625 0.09375 0.956314 
6.0625 0.765625 0.494514 
6.0625 1.48438 0.801575 
6.125 2.14063 -0.675224 
6.125 2.84375 -0.634209 
6.125 3.54688 -0.682854 
6.125 4.25 -0.658646 
6.125 4.95313 -0.688896 
6.125 5.65625 -0.648834 
6.125 6.35938 -0.678246 
6.125 7.0625 -1.08176 
6.1875 7 -3.76233 
6.1875 7.70313 -3.68365 
6.1875 8.40625 -3.71685 
6.1875 9.125 -3.63979 
6.1875 9.8125 -3.6994 
6.1875 10.5156 -3.66883 
6.1875 11.2188 -3.69022 
6.1875 11.9375 -3.68892 
6.1875 12.6406 -3.72456 
6.1875 13.3438 -3.7323 
6.1875 14.0469 -3.71955 
6.1875 14.75 -3.71893 
6.1875 15.4531 -3.71535 
6.1875 16.1563 -3.7114 
6.1875 16.875 -3.71196 
6.1875 17.5781 -3.11289 
6.1875 18.2813 -3.00271 
6.25 18.2344 -6.57504 
6.1875 18.9844 -2.93462 
6.25 18.9531 -5.67315 
6.1875 19.6875 -2.89111 
6.1875 20.3906 -2.73718 
6.1875 21.1094 -2.82774 
6.1875 21.8125 -2.90774 
6.1875 22.5156 -2.89245 
6.1875 23.2188 -2.95905 
6.1875 23.9219 -2.9303 
6.1875 24.625 -2.91123 
6.1875 25.3281 -2.95415 
6.1875 26.0313 -3.11647 
6.1875 26.75 -3.31828 
6.1875 27.4531 -3.20017 
6.5 27.3906 -14.3649 
6.5 28.0938 -14.421 
6.5 28.7969 -14.4568 
6.5 29.5156 -14.5197 
6.5 30.2188 -14.9068 
6.5 30.9375 -15.0411 
6.5 31.6563 -15.0552 
6.5 32.3594 -15.0262 
6.5 33.0625 -15.0971 
6.3125 33.7813 -7.51258 
6.3125 34.5 -7.68467 
6.3125 35.2031 -7.62192 
6.3125 35.9063 -7.67577 
6.3125 36.6094 -7.65707 
6.3125 37.3281 -7.67773 
6.3125 38.0313 -7.66049 
6.3125 38.7344 -7.63539 
6.3125 39.4531 -7.66463 
6.1875 40.1406 -3.24462 
6.3125 40.1563 -7.63622 
6.25 40.8438 -4.49407 
6.25 41.5469 -4.52461 
6.25 42.2656 -4.51739 
6.25 42.9688 -4.48216 
6.25 43.6719 -4.50411 
6.25 44.375 -4.46059 
6.25 45.0781 -4.464 
6.25 45.7813 -4.43221 
6.25 46.4844 -4.51712 
6.25 47.2031 -4.49432 
6.25 47.9063 -4.52355 
6.25 48.6094 -4.50004 
6.25 49.3125 -4.52833 
6.25 50.0156 -4.54651 
6.1875 50.6875 -2.41969 
6.25 50.7344 -5.32788 
6.5625 50.875 -15.6779 
6.5625 51.5938 -15.6253 
6.5625 52.3125 -15.7492 
6.5625 53.0156 -15.7303 
6.5625 53.7344 -15.7635 
6.5625 54.4375 -15.7964 
6.5625 55.1563 -15.7388 
6.5625 55.875 -15.8083 
6.5625 56.5781 -15.7798 
6.5625 57.2969 -15.8408 
6.5625 58.0156 -15.8489 
6.5625 58.7344 -15.8716 
6.5625 59.4375 -15.9015 
6.5625 60.1406 -15.8484 
7.25 60.4844 -15.8871 
7.25 59.7656 -15.8305 
7.25 59.0625 -15.9282 
7.25 58.3438 -15.726 
7.25 57.625 -15.7281 
7.25 56.9063 -15.7871 
7.25 56.2031 -15.7532 
7.25 55.4844 -15.7989 
7.25 54.7813 -15.7867 
7.25 54.0625 -15.7765 
7.25 53.3594 -15.6635 
7.25 52.6406 -15.5975 
7.25 51.9219 -15.6161 
7.25 51.2188 -15.6941 
6.875 50.3125 -2.43853 
6.9375 49.625 -4.45027 
6.9375 48.9219 -4.45949 
6.9375 48.2188 -4.41578 
6.9375 47.5156 -4.49161 
6.9375 46.8125 -4.49698 
6.9375 46.0938 -4.48447 
6.9375 45.3906 -4.39179 
6.9375 44.6719 -4.39091 
6.9375 43.9688 -4.47721 
7 43.2656 -4.50045 
7 42.5625 -4.41834 
7 41.8438 -4.49334 
7 41.1406 -4.51785 
7 40.4375 -4.5268 
6.9375 39.7188 -3.00996 
7.0625 39.75 -7.64377 
7.0625 39.0469 -7.65456 
7.0625 38.3438 -7.65235 
7.0625 37.625 -7.71465 
7.0625 36.9219 -7.62424 
7.0625 36.2031 -7.61318 
7.0625 35.5 -7.72422 
7.0625 34.7969 -7.60006 
7.0625 34.0938 -7.67522 
7.0625 33.375 -6.86603 
7.3125 33.375 -15.5047 
7.3125 32.6563 -15.1018 
7.3125 31.9531 -15.0184 
7.3125 31.2344 -15.0018 
7.3125 30.5313 -14.9325 
7.3125 29.8125 -14.8052 
7.3125 29.0938 -14.4481 
7.3125 28.3906 -14.4223 
7.3125 27.6719 -14.4186 
7 27.0313 -3.18494 
7 26.3281 -3.14046 
7 25.625 -3.01077 
7 24.9063 -2.99797 
7 24.2031 -2.96221 
7 23.5 -2.9709 
7 22.7969 -2.87206 
7 22.0938 -2.91254 
7 21.3906 -2.83761 
7 20.6719 -2.88717 
7 19.9688 -2.70899 
7 19.2656 -2.72772 
7.125 19.2188 -6.39745 
7 18.5625 -2.99576 
7.125 18.5 -7.08762 
7 17.8594 -3.09093 
7.125 17.8125 -6.67372 
7 17.1563 -3.31833 
7 16.4531 -3.68249 
7 15.7344 -3.6865 
7.0625 15.0313 -3.69758 
7.0625 14.3281 -3.68581 
7.0625 13.6094 -3.68862 
7.0625 12.9063 -3.68361 
7.0625 12.2031 -3.67802 
7.0625 11.4844 -3.702 
7.0625 10.7813 -3.68804 
7.0625 10.0781 -3.65122 
7.0625 9.375 -3.63659 
7.0625 8.67188 -3.68886 
7.0625 7.96875 -3.65097 
7.0625 7.26563 -3.71739 
7 6.625 -0.81073 
7 5.92188 -0.688843 
7 5.20313 -0.671509 
7 4.51563 -0.706375 
7 3.8125 -0.680916 
7 3.10938 -0.654839 
7 2.40625 -0.665993 
7 1.70313 -0.63903 
6.9375 1.03125 0.65361 
6.9375 0.328125 1.02559 
6.9375 -0.375 1.00132 
6.9375 -1.09375 0.46096 
6.9375 -1.79688 0.47242 
6.9375 -2.5 0.496826 
6.9375 -3.20313 0.516525 
6.9375 -3.90625 0.554298 
7 -4.60938 0.509964 
7 -5.29688 0.526039 
7 -6.01563 0.430298 
7 -6.70313 0.552124 
7 -7.42188 0.554649 
7 -8.125 0.550072 
7 -8.82813 0.540916 
7 -9.53125 0.579536 
7 -10.2188 0.840393 
7 -10.9219 0.847282 
7 -11.625 0.660225 
7 -12.3281 0.643112 
7 -13.0313 0.656303 
7 -13.7344 0.672394 
7 -14.4375 0.664131 
7 -15.1563 0.67897 
7 -15.8594 0.709122 
7 -16.5625 0.737259 
7 -17.2656 0.685753 
7 -17.9688 0.716805 
7 -18.6719 0.723358 
7 -19.3594 0.777786 
7 -20.0781 0.630814 
7 -20.7813 0.659027 
7 -21.5 0.667709 
7 -22.2031 0.599197 
7 -22.9063 0.633331 
7 -23.5781 1.28143 
7 -24.2813 1.28636 
7 -25.0156 0.606186 
6.5625 -24.9219 16.2157 
6.625 -25.6563 15.4415 
6.6875 -26.4531 13.3957 
6.6875 -27.1406 13.3874 
6.6875 -27.8438 13.422 
6.6875 -28.5313 13.437 
6.6875 -29.2344 13.4952 
6.6875 -29.9219 13.7506 
6.6875 -30.6094 13.7921 
6.6875 -31.2969 14.0706 
6.6875 -31.9844 14.0404 
6.6875 -32.6875 14.048 
6.6875 -33.375 14.0735 
6.6875 -34.0781 14.0074 
6.6875 -34.8125 13.4631 
6.6875 -35.5 13.4529 
6.6875 -36.2031 13.4054 
6.6875 -36.9063 13.3885 
6.75 -37.6406 12.7087 
6.75 -38.3438 12.6576 
6.625 -38.8125 16.2619 
7.1875 -40 -2.53227 
7.1875 -40.7188 -2.65706 
7.1875 -41.4219 -2.62174 
7.1875 -42.125 -2.62331 
7.1875 -42.8281 -2.69904 
7.1875 -43.5469 -2.64471 
7.1875 -44.25 -2.65697 
7.1875 -45 -3.11768 
7.1875 -45.7031 -3.1096 
7.1875 -46.4063 -3.15607 
7.1875 -47.1094 -3.10715 
7.1875 -47.7813 -2.62193 
7.5625 -49.3594 -14.6326 
7.5625 -50.0938 -14.983 
7.5625 -50.7969 -14.9522 
7.5625 -51.5156 -14.9858 
7.5625 -52.2344 -15.0389 
7.5625 -52.9531 -15.1461 
7.5 -53.5313 -13.4649 
7.5 -54.2656 -13.4736 
7.5 -54.9688 -13.4697 
7.5625 -55.8125 -15.1509 
7.5625 -56.5313 -15.1038 
7.5625 -57.25 -15.176 
7.5625 -57.9688 -15.153 
7.5625 -58.6875 -15.2889 
7.5625 -59.3906 -15.2055 
7.5625 -60.1094 -15.1587 
8 -59.8906 -15.2184 
8 -59.1875 -15.1817 
8 -58.4688 -15.1702 
8 -57.7813 -15.1871 
8 -57.0781 -15.2116 
8 -56.3594 -15.1467 
8 -55.6406 -15.2087 
7.9375 -54.7969 -13.4505 
7.9375 -54.1406 -13.4273 
7.9375 -53.4219 -13.5208 
8 -52.7969 -15.1008 
8 -52.0938 -15.0605 
8 -51.4219 -15.0795 
7.9375 -50.7656 -15.0292 
7.9375 -50.0938 -14.6898 
7.9375 -49.3906 -14.2515 
7.625 -47.8281 -2.97658 
7.625 -47.0625 -3.09282 
7.625 -46.3125 -3.10497 
7.625 -45.5625 -3.11864 
7.625 -44.8125 -3.09143 
7.625 -44.0781 -2.66606 
7.625 -43.375 -2.63786 
7.625 -42.6406 -2.66922 
7.625 -41.9219 -2.65054 
7.625 -41.2031 -2.5997 
7.625 -40.5 -2.60013 
7.0625 -38.6094 15.9149 
7.1875 -38.7969 12.9424 
7.125 -37.9375 15.4022 
7.125 -37.3594 13.4447 
7.1875 -36.6563 13.3916 
7.1875 -35.9688 13.409 
7.1875 -35.2656 13.4415 
7.125 -34.5625 13.4694 
7.125 -33.8281 14.046 
7.125 -33.125 14.0574 
7.125 -32.4375 14.0319 
7.125 -31.7344 14.0492 
7.125 -31.0469 14.0245 
7.125 -30.3594 13.7484 
7.125 -29.6563 13.6498 
7.1875 -28.9688 13.4592 
7.1875 -28.2813 13.4288 
7.1875 -27.5781 13.4139 
7.1875 -26.8906 13.3846 
7.1875 -26.2188 13.0512 
7.0625 -25.3438 16.3437 
7.1875 -25.5313 12.7757 
7.1875 -24.8125 12.9965 
7.25 -25 9.3364 
7.5625 -25.4688 0.417282 
7.5 -24.75 0.616219 
7.5 -24.0156 1.27418 
7.5 -23.3125 1.2917 
7.5 -22.6563 0.564331 
7.5 -21.9375 0.56002 
7.5 -21.2344 0.60878 
7.5 -20.5313 0.615532 
7.5 -19.8438 0.612846 
7.5 -19.1406 0.715309 
7.5 -18.4375 0.660881 
7.5 -17.7344 0.63958 
7.5 -17.0313 0.653175 
7.5 -16.3281 0.68248 
7.5 -15.625 0.677307 
7.5 -14.9219 0.67765 
7.5 -14.2188 0.653328 
7.5 -13.5156 0.676918 
7.5 -12.8125 0.693146 
7.5 -12.1094 0.612328 
7.5 -11.4063 0.662186 
7.5 -10.7031 0.635056 
7.5 -10.0156 0.653313 
7.5 -9.3125 0.582054 
7.5 -8.60938 0.593758 
7.5625 -7.90625 0.538101 
7.5 -7.20313 0.59523 
7.5625 -6.5 0.540588 
7.5625 -5.8125 0.561295 
7.5625 -5.10938 0.589928 
7.5625 -4.40625 0.491608 
7.5625 -3.70313 0.511154 
7.5625 -3 0.50605 
7.5625 -2.3125 0.513947 
7.5625 -1.60938 0.544594 
7.5625 -0.90625 0.525772 
7.5 -0.1875 1.02393 
7.5625 0.5 0.536873 
7.5625 1.17188 -0.533737 
7.5625 1.85938 -0.660614 
7.5625 2.5625 -0.657372 
7.5625 3.26563 -0.588799 
7.5625 3.96875 -0.649643 
7.5625 4.67188 -0.645218 
7.5625 5.375 -0.702682 
7.5625 6.07813 -0.649902 
7.6875 6.71875 -3.69171 
7.625 7.42188 -3.66292 
7.625 8.10938 -3.65623 
7.625 8.8125 -3.6492 
7.6875 9.51563 -3.67422 
7.6875 10.2188 -3.70126 
7.6875 10.9219 -3.678 
7.6875 11.625 -3.72435 
7.6875 12.3438 -3.7077 
7.6875 13.0469 -3.7056 
7.6875 13.75 -3.71811 
7.6875 14.4531 -3.68272 
7.6875 15.1563 -3.70193 
7.6875 15.8594 -3.7356 
7.6875 16.5625 -3.67891 
7.625 17.2813 -3.10262 
7.625 17.9844 -2.95528 
7.75 17.9375 -6.5975 
7.625 18.6875 -2.84501 
7.75 18.6406 -6.49226 
7.625 19.4063 -2.68186 
7.75 19.3594 -6.69859 
7.625 20.1094 -2.79305 
7.625 20.8125 -2.80618 
7.625 21.5156 -2.71402 
7.625 22.2188 -2.87374 
7.625 22.9219 -2.9432 
7.625 23.625 -3.00223 
7.625 24.3438 -3.00079 
7.625 25.0469 -3.07394 
7.625 25.75 -3.08662 
7.625 26.4531 -3.31108 
7.625 27.1563 -3.15821 
7.9375 27.0938 -14.4153 
7.9375 27.8125 -14.4618 
7.9375 28.5313 -14.463 
8 29.2344 -14.6134 
8 29.9531 -14.9056 
8 30.6563 -14.9853 
8 31.375 -14.9497 
8 32.0781 -15.0061 
8 32.7969 -15.0021 
7.75 33.5156 -7.61018 
7.75 34.2188 -7.67022 
7.75 34.9219 -7.67236 
7.75 35.625 -7.67908 
7.75 36.3438 -7.62559 
7.75 37.0469 -7.69892 
7.75 37.7656 -7.66444 
7.75 38.4688 -7.68459 
7.75 39.1719 -7.65414 
7.625 39.8594 -3.20435 
7.75 39.875 -7.61327 
7.6875 40.5781 -4.50892 
7.6875 41.2813 -4.50732 
7.6875 41.9844 -4.47518 
7.6875 42.6875 -4.52266 
7.6875 43.3906 -4.56975 
7.6875 44.0938 -4.58867 
7.6875 44.8125 -4.48 
7.6875 45.5156 -4.51328 
7.6875 46.2344 -4.43618 
7.6875 46.9375 -4.511 
7.6875 47.6406 -4.48562 
7.6875 48.3281 -4.51475 
7.6875 49.0313 -4.51838 
7.6875 49.75 -4.5317 
7.625 50.4219 -2.53211 
7.6875 50.4688 -5.35051 
8 50.6094 -15.6882 
8 51.3281 -15.633 
8 52.0469 -15.6822 
8 52.75 -15.6711 
8 53.4688 -15.7271 
8 54.1719 -15.7077 
8 54.8906 -15.7178 
8 55.6094 -15.7948 
8 56.3125 -15.7742 
8 57.0313 -15.783 
8 57.75 -15.8212 
8 58.4531 -15.8216 
8 59.1719 -15.8241 
8 59.8906 -15.8812 
8.625 60.125 -15.8799 
8.625 59.4063 -15.923 
8.625 58.6875 -15.8258 
8.625 57.9688 -15.7482 
8.625 57.25 -15.7474 
8.625 56.5469 -15.7287 
8.625 55.8281 -15.6697 
8.625 55.125 -15.72 
8.625 54.4063 -15.7175 
8.625 53.6875 -15.7271 
8.625 52.9688 -15.6214 
8.625 52.2656 -15.6551 
8.625 51.5469 -15.6508 
8.625 50.8281 -15.6812 
8.25 49.9375 -2.47266 
8.3125 49.2656 -4.47659 
8.3125 48.5469 -4.46059 
8.3125 47.8438 -4.48412 
8.3125 47.1406 -4.37225 
8.3125 46.4375 -4.49984 
8.3125 45.7344 -4.52193 
8.3125 45.0313 -4.55886 
8.3125 44.3125 -4.46545 
8.3125 43.6094 -4.51632 
8.3125 42.9063 -4.45193 
8.3125 42.2031 -4.50448 
8.3125 41.5 -4.49415 
8.375 40.7969 -4.50829 
8.375 40.0781 -4.49223 
8.3125 39.3594 -3.24226 
8.4375 39.3906 -7.65387 
8.4375 38.6719 -7.6444 
8.4375 37.9688 -7.59946 
8.4375 37.2656 -7.68893 
8.4375 36.5625 -7.65573 
8.4375 35.8438 -7.68933 
8.4375 35.1406 -7.66528 
8.4375 34.4375 -7.61076 
8.4375 33.7188 -7.60317 
8.4375 33.0156 -6.82386 
8.6875 33.0156 -14.8778 
8.6875 32.2969 -14.9496 
8.6875 31.5938 -14.8958 
8.6875 30.875 -14.9315 
8.6875 30.1563 -14.8694 
8.6875 29.4531 -14.7793 
8.6875 28.7344 -14.4293 
8.6875 28.0313 -14.4109 
8.6875 27.3125 -14.4369 
8.3125 26.6719 -3.09793 
8.375 25.9531 -3.14076 
8.3125 25.25 -3.04314 
8.3125 24.5469 -2.95035 
8.3125 23.8594 -2.80698 
8.375 23.1406 -2.97774 
8.375 22.4375 -2.95097 
8.3125 21.7344 -2.73389 
8.375 21.0313 -2.7186 
8.375 20.3281 -2.82274 
8.375 19.625 -2.67194 
8.375 18.9219 -2.71273 
8.4375 18.875 -6.038 
8.375 18.2031 -2.8483 
8.4375 18.1719 -5.27213 
8.375 17.5 -3.04819 
8.375 16.7969 -3.28252 
8.375 16.0781 -3.6288 
8.375 15.375 -3.71501 
8.375 14.6719 -3.67358 
8.375 13.9531 -3.6391 
8.375 13.25 -3.70904 
8.375 12.5469 -3.66613 
8.375 11.8438 -3.63782 
8.375 11.125 -3.6916 
8.375 10.4219 -3.72994 
8.375 9.71875 -3.68539 
8.375 9.01563 -3.71526 
8.4375 8.3125 -3.72225 
8.4375 7.59375 -3.69901 
8.4375 6.89063 -3.65291 
8.3125 6.26563 -0.860703 
8.3125 5.5625 -0.669128 
8.3125 4.85938 -0.666664 
8.3125 4.15625 -0.730995 
8.3125 3.45313 -0.555389 
8.3125 2.75 -0.678955 
8.3125 2.04688 -0.654778 
8.3125 1.34375 -0.670204 
8.3125 0.6875 0.657661 
8.3125 -0.015625 1.05476 
8.3125 -0.703125 1.15042 
8.3125 -1.42188 0.61026 
8.3125 -2.125 0.591972 
8.3125 -2.82813 0.584229 
8.3125 -3.53125 0.614288 
8.3125 -4.25 0.59256 
8.3125 -4.95313 0.601128 
8.3125 -5.65625 0.594963 
8.3125 -6.35938 0.649033 
8.3125 -7.04688 0.703613 
8.3125 -7.75 0.683556 
8.3125 -8.45313 0.666695 
8.3125 -9.17188 0.648102 
8.3125 -9.875 0.639778 
8.3125 -10.5781 0.731392 
8.3125 -11.2813 0.688713 
8.3125 -11.9688 0.783554 
8.3125 -12.6875 0.691856 
8.3125 -13.3906 0.70536 
8.3125 -14.0938 0.681923 
8.3125 -14.7813 0.63118 
8.3125 -15.4844 0.688293 
8.375 -16.1875 0.61628 
8.375 -16.9063 0.599632 
8.375 -17.6094 0.623451 
8.375 -18.3125 0.645279 
8.375 -19.0156 0.647293 
8.375 -19.7188 0.612129 
8.375 -20.4219 0.577148 
8.375 -21.125 0.572777 
8.375 -21.8281 0.531525 
8.375 -22.5313 0.568237 
8.375 -23.2344 0.533058 
8.375 -23.9063 1.31354 
8.375 -24.6094 1.244 
8.375 -25.3438 0.531464 
7.9375 -25.2344 16.2728 
8 -25.4063 12.9144 
8 -26.1094 12.8556 
8 -26.7656 13.3507 
8 -27.4688 13.4152 
8 -28.1719 13.393 
8 -28.8594 13.4535 
8 -29.5625 13.4795 
8 -30.25 13.76 
8 -30.9375 13.7343 
8 -31.6094 14.0479 
8 -32.3125 14.0802 
8 -33.0156 13.9785 
8 -33.7031 13.9769 
8 -34.3125 15.3787 
8.0625 -35.125 13.4615 
8.0625 -35.8281 13.4414 
8.0625 -36.5156 13.4464 
8.0625 -37.2188 13.3919 
8.0625 -37.9531 12.8471 
8.0625 -38.6719 12.6044 
7.9375 -39.125 16.3234 
8.5 -40.3281 -2.59245 
8.5 -41.0313 -2.53218 
8.5 -41.75 -2.59118 
8.5 -42.4531 -2.66708 
8.5 -43.1563 -2.65567 
8.5 -43.875 -2.64343 
8.5 -44.5781 -2.73322 
8.5 -45.3125 -3.12376 
8.5625 -46.0313 -3.10794 
8.5625 -46.7344 -3.10436 
8.5 -47.4219 -2.83103 
8.875 -48.9844 -14.9625 
8.875 -49.6875 -15.0142 
8.875 -50.4063 -15.0279 
8.875 -51.1406 -15.0257 
8.875 -51.8594 -15.0536 
8.875 -52.5313 -14.6257 
8.875 -53.2188 -14.1571 
8.875 -53.8906 -13.5891 
8.875 -54.7188 -15.1393 
8.875 -55.4219 -15.1505 
8.875 -56.1406 -15.1038 
8.875 -56.8438 -15.1492 
8.875 -57.5625 -15.1465 
8.9375 -58.2813 -15.1931 
8.9375 -59 -15.1493 
8.9375 -59.7188 -15.2047 
8.9375 -60.4219 -15.1603 
9.25 -60.0781 -15.1645 
9.25 -59.3594 -15.1686 
9.25 -58.6563 -15.2247 
9.25 -57.9375 -15.2062 
9.25 -57.2188 -15.1644 
9.25 -56.5 -15.1298 
9.25 -55.7969 -15.1715 
9.25 -55.0781 -15.1205 
9.25 -54.3438 -14.9128 
9.1875 -53.5781 -14.1769 
9.1875 -52.8594 -14.2451 
9.25 -52.2031 -15.0446 
9.25 -51.4844 -15.0915 
9.25 -50.7656 -15.046 
9.25 -50.0625 -15.0221 
9.25 -49.3281 -14.8187 
9.25 -48.6094 -14.7443 
8.875 -47.0781 -3.06592 
8.875 -46.375 -3.12461 
8.875 -45.6719 -3.13074 
8.875 -44.9531 -3.02958 
8.875 -44.2188 -2.6959 
8.875 -43.5156 -2.63834 
8.875 -42.8125 -2.62511 
8.875 -42.1094 -2.63882 
8.875 -41.4063 -2.61694 
8.875 -40.7031 -2.63471 
8.375 -38.8125 15.9947 
8.4375 -39 12.9848 
8.4375 -38.3281 12.662 
8.4375 -37.5781 13.3858 
8.4375 -36.875 13.4021 
8.4375 -36.1719 13.4163 
8.4375 -35.4844 13.4439 
8.4375 -34.7813 13.4546 
8.4375 -34.0938 13.4883 
8.4375 -33.3906 13.5648 
8.375 -32.5938 15.3288 
8.4375 -31.9844 13.9798 
8.4375 -31.2813 13.9377 
8.4375 -30.5938 13.7587 
8.4375 -29.9063 13.6674 
8.4375 -29.2188 13.4593 
8.4375 -28.5313 13.4137 
8.4375 -27.8281 13.391 
8.4375 -27.125 13.3736 
8.4375 -26.4531 13.125 
8.3125 -25.5938 16.2826 
8.4375 -25.7813 12.7547 
8.4375 -25.0625 13.0254 
8.5625 -25.2656 9.06604 
8.8125 -25.7344 0.18689 
8.8125 -25.0156 0.59034 
8.75 -24.2813 1.20067 
8.75 -23.5781 1.18044 
8.8125 -22.9063 0.482605 
8.8125 -22.2031 0.500839 
8.8125 -21.5 0.499268 
8.8125 -20.7969 0.570541 
8.8125 -20.0938 0.560036 
8.8125 -19.3906 0.519905 
8.8125 -18.6719 0.58503 
8.8125 -17.9688 0.543442 
8.8125 -17.2656 0.56456 
8.8125 -16.5625 0.608208 
8.8125 -15.8594 0.56778 
8.8125 -15.1563 0.597603 
8.8125 -14.4531 0.615433 
8.8125 -13.75 0.601349 
8.8125 -13.0469 0.610176 
8.8125 -12.3438 0.66674 
8.8125 -11.6406 0.666245 
8.8125 -10.9375 0.701027 
8.8125 -10.2188 0.71862 
8.8125 -9.51563 0.684532 
8.8125 -8.82813 0.685928 
8.8125 -8.125 0.637825 
8.8125 -7.42188 0.679932 
8.8125 -6.71875 0.647697 
8.8125 -6.01563 0.667999 
8.8125 -5.3125 0.658798 
8.8125 -4.60938 0.650047 
8.8125 -3.90625 0.641731 
8.8125 -3.20313 0.606392 
8.8125 -2.5 0.616661 
8.8125 -1.79688 0.61982 
8.8125 -1.09375 0.727921 
8.75 -0.390625 1.14877 
8.8125 0.296875 0.634033 
8.8125 0.96875 -0.62648 
8.8125 1.67188 -0.708801 
8.8125 2.375 -0.673218 
8.8125 3.07813 -0.654984 
8.8125 3.78125 -0.680923 
8.8125 4.48438 -0.69162 
8.8125 5.1875 -0.671944 
8.8125 5.89063 -0.689323 
8.9375 6.53125 -3.66628 
8.9375 7.23438 -3.68026 
8.9375 7.9375 -3.62887 
8.9375 8.64063 -3.66693 
8.9375 9.34375 -3.64732 
8.9375 10.0469 -3.67455 
8.9375 10.7656 -3.72138 
8.9375 11.4688 -3.69785 
8.9375 12.1719 -3.70885 
8.9375 12.875 -3.72433 
8.9375 13.5781 -3.69212 
8.9375 14.2813 -3.67452 
8.9375 14.9844 -3.69115 
8.9375 15.6875 -3.65758 
8.9375 16.3906 -3.6611 
8.875 17.1094 -3.02261 
9 17.0625 -6.43992 
8.875 17.8125 -2.87541 
9 17.7656 -5.68869 
8.875 18.5156 -2.75013 
9 18.4688 -6.80672 
8.875 19.2188 -2.5947 
9 19.1719 -6.60374 
8.875 19.9219 -2.76321 
8.875 20.6406 -2.83901 
8.875 21.3438 -2.82958 
8.875 22.0469 -2.9296 
8.875 22.75 -2.99416 
8.875 23.4531 -2.87588 
8.875 24.1563 -2.71732 
8.875 24.8594 -3.06016 
8.875 25.5625 -3.08817 
8.9375 26.2813 -3.22556 
9.25 26.9063 -14.4123 
9.25 27.625 -14.4689 
9.25 28.3281 -14.4102 
9.25 29.0469 -14.6581 
9.25 29.75 -14.8758 
9.25 30.4688 -14.8981 
9.25 31.1875 -14.9227 
9.25 31.8906 -14.9542 
9 32.625 -6.79619 
9.25 32.6094 -14.9503 
9.0625 33.3281 -7.66838 
9.0625 34.0313 -7.69381 
9.0625 34.7344 -7.6661 
9.0625 35.4531 -7.6631 
9.0625 36.1563 -7.687 
9.0625 36.8594 -7.6457 
9.0625 37.5625 -7.69108 
9.0625 38.2813 -7.65646 
9.0625 38.9844 -7.67865 
8.9375 39.6719 -4.50228 
8.9375 40.375 -4.51876 
8.9375 41.0781 -4.49735 
8.9375 41.7813 -4.56792 
8.9375 42.4844 -4.48819 
8.9375 43.2031 -4.50781 
8.9375 43.9063 -4.51468 
8.9375 44.6094 -4.55357 
8.9375 45.3281 -4.54705 
8.9375 46.0313 -4.5101 
8.9375 46.7344 -4.49274 
8.9375 47.4375 -4.52493 
8.9375 48.1406 -4.47163 
8.9375 48.8438 -4.48284 
8.9375 49.5625 -4.5112 
9.25 50.4219 -15.5808 
9.25 51.125 -15.6555 
9.25 51.8438 -15.6427 
9.25 52.5625 -15.6693 
9.25 53.2656 -15.6654 
9.25 53.9688 -15.7136 
9.25 54.6875 -15.739 
9.25 55.3906 -15.7712 
9.25 56.1094 -15.7433 
9.25 56.8281 -15.7845 
9.25 57.5469 -15.9054 
9.25 58.25 -15.8363 
9.25 58.9688 -15.8738 
9.25 59.6875 -15.8961 
9.25 60.3906 -15.9852 
10 60.4375 -16.0597 
10 59.7344 -15.8606 
10 59.0156 -15.8309 
10 58.2969 -15.9505 
10 57.5938 -15.9424 
10 56.875 -15.8991 
10 56.1563 -15.7804 
10 55.4375 -15.7061 
10 54.7188 -15.7137 
10 54 -15.6786 
10 53.2969 -15.7028 
10 52.5781 -15.6618 
10 51.875 -15.6801 
10 51.1563 -15.6481 
10 50.4375 -15.6231 
9.625 49.5625 -2.50653 
9.6875 48.875 -4.52523 
9.6875 48.1719 -4.52148 
9.6875 47.4688 -4.52716 
9.6875 46.75 -4.49752 
9.6875 46.0469 -4.50246 
9.6875 45.3438 -4.43192 
9.6875 44.6406 -4.46844 
9.6875 43.9375 -4.42708 
9.6875 43.2188 -4.44534 
9.6875 42.5156 -4.44299 
9.75 41.8125 -4.45535 
9.75 41.1094 -4.4546 
9.75 40.4063 -4.41623 
9.75 39.6875 -4.49468 
9.8125 39 -7.66091 
9.8125 38.2813 -7.66373 
9.8125 37.5781 -7.68842 
9.8125 36.875 -7.5953 
9.8125 36.1563 -7.62914 
9.8125 35.4531 -7.58763 
9.8125 34.75 -7.64564 
9.8125 34.0469 -7.64075 
9.8125 33.3281 -7.65543 
9.8125 32.625 -6.82079 
10.0625 32.625 -14.9298 
10.0625 31.9063 -14.9036 
10.0625 31.1875 -14.8771 
10.0625 30.4844 -14.8301 
10.0625 29.7656 -14.8675 
10.0625 29.0469 -14.6998 
10.0625 28.3438 -14.4245 
10.0625 27.625 -14.3982 
10.0625 26.9219 -14.4089 
9.75 26.2813 -3.13459 
9.75 25.5781 -3.11967 
9.75 24.875 -3.05174 
9.75 24.1563 -2.9984 
9.75 23.4688 -3.04704 
9.75 22.75 -2.87301 
9.75 22.0469 -2.91834 
9.75 21.3438 -2.8883 
9.75 20.6406 -2.85269 
9.75 19.9375 -2.72457 
9.75 19.2344 -2.71317 
9.75 18.5313 -2.74124 
9.875 18.4688 -7.01304 
9.75 17.8125 -2.89133 
9.875 17.7656 -6.95079 
9.75 17.1094 -2.89376 
9.875 17.0469 -7.068 
9.75 16.4063 -3.32265 
9.75 15.6875 -3.64864 
9.75 14.9844 -3.71962 
9.75 14.2813 -3.62774 
9.8125 13.5781 -3.71047 
9.8125 12.8594 -3.6827 
9.8125 12.1563 -3.69955 
9.8125 11.4531 -3.70083 
9.8125 10.75 -3.67942 
9.8125 10.0469 -3.68754 
9.8125 9.34375 -3.74007 
9.8125 8.64063 -3.6575 
9.8125 7.9375 -3.68669 
9.8125 7.21875 -3.73808 
9.8125 6.51563 -3.62411 
9.75 5.875 -0.741608 
9.75 5.17188 -0.744331 
9.75 4.46875 -0.72657 
9.75 3.76563 -0.700783 
9.75 3.0625 -0.729584 
9.75 2.35938 -0.715469 
9.75 1.65625 -0.725883 
9.75 0.953125 -0.676086 
9.6875 0.28125 0.711906 
9.6875 -0.40625 1.19928 
9.6875 -1.10938 1.18301 
9.6875 -1.82813 0.650764 
9.6875 -2.53125 0.662849 
9.6875 -3.23438 0.707626 
9.6875 -3.9375 0.73542 
9.6875 -4.64063 0.776222 
9.6875 -5.34375 0.675346 
9.6875 -6.04688 0.739403 
9.75 -6.75 0.636681 
9.75 -7.45313 0.691544 
9.75 -8.15625 0.699425 
9.75 -8.85938 0.640434 
9.75 -9.5625 0.624367 
9.75 -10.2813 0.648743 
9.75 -10.9844 0.618484 
9.75 -11.6719 0.803185 
9.75 -12.375 0.845985 
9.75 -13.0938 0.617432 
9.75 -13.7969 0.563797 
9.75 -14.5 0.560631 
9.75 -15.2031 0.555626 
9.75 -15.9063 0.558037 
9.75 -16.6094 0.503876 
9.75 -17.3125 0.467216 
9.75 -18.0156 0.518661 
9.75 -18.7188 0.473068 
9.75 -19.4219 0.470497 
9.75 -20.1406 0.433594 
9.75 -20.8438 0.476578 
9.75 -21.5313 0.487381 
9.75 -22.2344 0.426468 
9.75 -22.9375 0.458366 
9.75 -23.6406 0.442955 
9.75 -24.3125 1.16642 
9.75 -25.0156 1.14478 
9.75 -25.75 0.684502 
9.3125 -25.625 16.266 
9.4375 -25.8125 12.7906 
9.4375 -26.5 12.8444 
9.4375 -27.1719 13.3774 
9.4375 -27.875 13.4972 
9.375 -28.4688 15.3899 
9.4375 -29.2656 13.4365 
9.4375 -29.9688 13.4626 
9.4375 -30.6563 13.494 
9.4375 -31.3594 13.501 
9.4375 -32.0469 13.5207 
9.4375 -32.75 13.566 
9.4375 -33.4375 13.5018 
9.4375 -34.1406 13.4954 
9.4375 -34.8281 13.4394 
9.4375 -35.5156 13.4763 
9.4375 -36.2344 13.3867 
9.4375 -36.9375 13.4101 
9.4375 -37.6406 13.4039 
9.5 -38.375 12.6725 
9.5 -39.0781 12.6667 
9.375 -39.5313 16.3761 
9.9375 -40.7344 -2.44456 
9.8125 -41.2813 -0.00782776 
9.6875 -41.6875 4.58957 
9.9375 -42.1563 -2.65511 
9.9375 -42.8906 -2.91756 
9.9375 -43.5938 -2.9185 
9.9375 -44.2969 -2.90641 
9.9375 -45 -3.03294 
9.9375 -45.7188 -3.13676 
9.9375 -46.4219 -3.07076 
9.9375 -47.0938 -2.41644 
10.3125 -47.9844 -15.1958 
10.3125 -48.6719 -14.909 
10.3125 -49.3906 -15.0109 
10.3125 -50.1094 -15.0375 
10.3125 -50.8281 -14.9939 
10.3125 -51.5469 -15.0343 
10.3125 -52.2656 -15.0893 
10.3125 -52.9844 -15.1038 
10.3125 -53.6875 -15.0732 
10.3125 -54.4063 -15.1399 
10.3125 -55.125 -15.1287 
10.3125 -55.8281 -15.1271 
10.3125 -56.5469 -15.0975 
10.3125 -57.2656 -15.1442 
10.3125 -57.9844 -15.1457 
10.3125 -58.7031 -15.1921 
10.3125 -59.4219 -15.1604 
10.3125 -60.0938 -14.6058 
10.6875 -60.25 -14.2689 
10.6875 -59.5938 -14.9307 
10.6875 -58.8906 -15.1437 
10.6875 -58.1875 -15.1772 
10.6875 -57.4688 -15.1429 
10.6875 -56.75 -15.1159 
10.6875 -56.0313 -15.1262 
10.6875 -55.3125 -15.1359 
10.6875 -54.5938 -15.1154 
10.6875 -53.875 -15.1612 
10.6875 -53.1719 -15.1466 
10.6875 -52.4531 -15.1392 
10.6875 -51.75 -15.1763 
10.6875 -51.0156 -15.0391 
10.6875 -50.2969 -15.0155 
10.6875 -49.5938 -15.0217 
10.6875 -48.875 -15.0149 
10.6875 -48.125 -14.6017 
10.375 -46.6094 -3.08719 
10.375 -45.9063 -3.14555 
10.375 -45.1875 -2.97198 
10.375 -44.4844 -2.95978 
10.375 -43.7813 -2.93267 
9.8125 -41.7813 16.4537 
10.375 -43.0625 -2.92492 
9.875 -41.2344 14.2258 
10 -40.7813 10.6505 
9.8125 -39.7188 16.2712 
10.0625 -40.3125 7.09497 
9.9375 -39.2344 12.7507 
9.9375 -38.5625 12.6245 
9.875 -37.7969 13.3926 
9.875 -37.1094 13.424 
9.875 -36.4063 13.4359 
9.875 -35.7031 13.4458 
9.875 -35.0156 13.4461 
9.875 -34.3125 13.4869 
9.875 -33.625 13.4861 
9.875 -32.9219 13.5426 
9.875 -32.2344 13.5299 
9.875 -31.5313 13.522 
9.875 -30.8438 13.4923 
9.875 -30.1406 13.4756 
9.875 -29.4531 13.442 
9.875 -28.7656 13.4239 
9.875 -28.0625 13.3688 
9.875 -27.375 13.3966 
9.875 -26.5625 15.4611 
9.8125 -25.8281 16.2072 
9.9375 -26 12.8339 
9.9375 -25.3125 12.7599 
10.125 -25.7031 5.37283 
10.25 -25.9531 0.438477 
10.25 -25.2188 1.06319 
10.25 -24.5156 1.07979 
10.25 -23.8281 0.757751 
10.25 -23.1406 0.416534 
10.25 -22.4375 0.402 
10.25 -21.7344 0.407814 
10.25 -21.0313 0.411522 
10.25 -20.3281 0.475655 
10.25 -19.625 0.450172 
10.25 -18.9063 0.425125 
10.25 -18.2188 0.438271 
10.25 -17.5 0.486557 
10.25 -16.8125 0.468155 
10.25 -16.1094 0.482605 
10.25 -15.4063 0.527412 
10.25 -14.7031 0.522514 
10.25 -14 0.475632 
10.25 -13.2813 0.546371 
10.25 -12.5781 0.777077 
10.25 -11.8594 0.861153 
10.25 -11.1563 0.863495 
10.25 -10.4688 0.54715 
10.25 -9.76563 0.617676 
10.25 -9.0625 0.636108 
10.25 -8.35938 0.637306 
10.25 -7.65625 0.674225 
10.25 -6.95313 0.629082 
10.25 -6.25 0.649422 
10.25 -5.54688 0.655327 
10.25 -4.84375 0.706459 
10.25 -4.14063 0.712929 
10.25 -3.4375 0.74221 
10.25 -2.73438 0.732239 
10.25 -2.03125 0.749809 
10.25 -1.3125 1.19472 
10.25 -0.609375 1.23841 
10.25 0.078125 0.733368 
10.3125 0.734375 -0.634544 
10.3125 1.4375 -0.699516 
10.3125 2.14063 -0.686501 
10.3125 2.84375 -0.758087 
10.3125 3.54688 -0.764442 
10.3125 4.25 -0.700462 
10.3125 4.95313 -0.735901 
10.3125 5.67188 -0.696121 
10.375 6.29688 -3.65826 
10.375 7 -3.69737 
10.375 7.70313 -3.66373 
10.375 8.40625 -3.63201 
10.375 9.10938 -3.655 
10.375 9.82813 -3.64748 
10.375 10.5313 -3.66203 
10.375 11.2344 -3.67117 
10.375 11.9375 -3.70733 
10.375 12.6406 -3.73302 
10.375 13.3438 -3.73344 
10.375 14.0469 -3.69347 
10.375 14.75 -3.71282 
10.375 15.4531 -3.71434 
10.375 16.1563 -3.56815 
10.375 16.875 -3.02978 
10.5 16.8125 -6.59445 
10.375 17.5781 -2.9178 
10.5 17.5313 -6.58231 
10.375 18.2813 -2.85536 
10.5 18.2344 -6.68462 
10.375 19 -2.71239 
10.375 19.7031 -2.8039 
10.375 20.4063 -2.70755 
10.375 21.1094 -2.87796 
10.375 21.8125 -2.88829 
10.375 22.5156 -2.98038 
10.375 23.2188 -2.9798 
10.375 23.9219 -3.06616 
10.375 24.625 -3.08724 
10.375 25.3281 -3.14021 
10.375 26.0469 -3.23289 
10.6875 26.6719 -14.4198 
10.6875 27.3906 -14.454 
10.6875 28.0938 -14.4479 
10.75 28.7969 -14.6786 
10.75 29.5156 -14.8365 
10.75 30.2344 -14.8466 
10.75 30.9375 -14.8713 
10.75 31.6563 -14.8757 
10.5 32.375 -6.82794 
10.75 32.3594 -14.8446 
10.5 33.0781 -7.66018 
10.5 33.7813 -7.69569 
10.5 34.5 -7.65086 
10.5 35.2031 -7.64294 
10.5 35.9063 -7.68204 
10.5 36.625 -7.68826 
10.5 37.3281 -7.67161 
10.5 38.0313 -7.67467 
10.5 38.75 -7.68961 
10.4375 39.4375 -4.45853 
10.4375 40.1406 -4.51267 
10.4375 40.8438 -4.54123 
10.4375 41.5469 -4.48957 
10.4375 42.25 -4.47753 
10.4375 42.9531 -4.4725 
10.4375 43.6563 -4.4619 
10.4375 44.375 -4.44109 
10.4375 45.0781 -4.50208 
10.4375 45.7813 -4.48542 
10.4375 46.4844 -4.47827 
10.4375 47.2031 -4.4931 
10.4375 47.8906 -4.50999 
10.4375 48.6094 -4.49408 
10.375 49.2813 -2.55043 
10.75 50.1719 -15.5274 
10.75 50.8906 -15.6674 
10.75 51.5938 -15.6646 
10.75 52.3125 -15.6465 
10.75 53.0156 -15.6279 
10.75 53.7188 -15.7287 
10.75 54.4375 -15.7392 
10.75 55.1563 -15.7716 
10.75 55.875 -15.851 
10.75 56.5938 -15.9151 
10.75 57.3125 -15.8988 
10.75 58.0156 -15.9445 
10.75 58.7344 -16.0148 
10.75 59.4531 -15.9373 
10.75 60.1563 -16.0842 
11.375 60.125 -16.0871 
11.375 59.4063 -16.0725 
11.375 58.6875 -15.9951 
11.3125 57.9531 -14.4546 
11.3125 57.2344 -14.4338 
11.375 56.5469 -15.9127 
11.375 55.8281 -15.8784 
11.375 55.125 -15.7966 
11.375 54.4063 -15.7389 
11.375 53.6875 -15.711 
11.375 52.9844 -15.6801 
11.375 52.2656 -15.6513 
11.375 51.5469 -15.6119 
11.375 50.8438 -15.5846 
11.375 50.125 -15.587 
11 49.25 -2.59988 
11.375 49.4219 -15.9786 
11.0625 48.5625 -4.51612 
11.0625 47.8594 -4.45207 
11.0625 47.1563 -4.41019 
11.0625 46.4375 -4.4677 
11.0625 45.7344 -4.47485 
11.0625 45.0156 -4.3868 
11.0625 44.3125 -4.48791 
11.0625 43.6094 -4.49876 
11.0625 42.9063 -4.53907 
11.0625 42.1719 -4.5243 
11.0625 41.4844 -4.48386 
11.0625 40.8125 -4.54019 
11.0625 40.0938 -4.5115 
11.0625 39.3438 -4.49508 
11.1875 38.5938 -7.66125 
11.1875 37.8281 -7.67139 
11.1875 37.0625 -7.63098 
11.1875 36.4063 -7.70473 
11.1875 35.7656 -7.64568 
11.1875 35.0781 -7.70881 
11.1875 34.4063 -7.64659 
11.1875 33.7188 -7.73138 
11.1875 33.0156 -7.66848 
11.1875 32.3125 -6.82616 
11.375 32.2969 -14.8351 
11.375 31.5938 -14.8239 
11.375 30.875 -14.8445 
11.375 30.1719 -14.8048 
11.375 29.4531 -14.7572 
11.375 28.75 -14.7265 
11.375 28.0313 -14.4434 
11.375 27.3281 -14.4244 
11.375 26.6094 -14.4125 
11.0625 25.9844 -3.21549 
11.0625 25.2969 -3.1328 
11.0625 24.5781 -3.00976 
11.0625 23.875 -3.02124 
11.0625 23.1719 -2.92494 
11.0625 22.4688 -2.98039 
11.0625 21.7656 -2.90813 
11.0625 21.0781 -2.59325 
11.0625 20.375 -2.49285 
11.0625 19.6563 -2.83107 
11.0625 18.9531 -2.76702 
11.0625 18.25 -2.76496 
11.1875 18.1875 -7.09665 
11.0625 17.5469 -2.84747 
11.1875 17.4844 -7.08675 
11.0625 16.8438 -2.95457 
11.1875 16.7813 -7.10635 
11.125 16.1406 -3.28595 
11.125 15.4375 -3.71675 
11.125 14.7344 -3.75009 
11.125 14.0156 -3.73052 
11.125 13.3125 -3.71803 
11.125 12.6094 -3.74251 
11.125 11.9063 -3.75176 
11.125 11.2031 -3.74541 
11.125 10.4844 -3.7536 
11.125 9.78125 -3.67902 
11.125 9.0625 -3.68627 
11.125 8.35938 -3.59843 
11.125 7.65625 -3.63989 
11.125 6.95313 -3.66872 
11.125 6.25 -3.65946 
11.0625 5.60938 -0.841881 
11.0625 4.90625 -0.779266 
11.0625 4.20313 -0.738724 
11.0625 3.5 -0.727715 
11.0625 2.78125 -0.726234 
11.0625 2.07813 -0.711868 
11.0625 1.375 -0.68457 
11.0625 0.65625 -0.679291 
11 0 0.828835 
11 -0.6875 1.27139 
11 -1.39063 1.23279 
11.0625 -2.10938 0.720558 
11.0625 -2.8125 0.687866 
11.0625 -3.51563 0.653259 
11.0625 -4.23438 0.621696 
11.0625 -4.9375 0.625389 
11.0625 -5.64063 0.589493 
11.0625 -6.34375 0.633926 
11.0625 -7.04688 0.656288 
11.0625 -7.76563 0.611855 
11.0625 -8.46875 0.540352 
11.0625 -9.1875 0.514229 
11.0625 -9.89063 0.543068 
11.0625 -10.5781 0.589958 
11.0625 -11.2813 0.806877 
11.0625 -11.9844 0.812401 
11.0625 -12.7031 0.751236 
11.0625 -13.4219 0.53318 
11.0625 -14.125 0.462341 
11.0625 -14.8281 0.486839 
11.0625 -15.5313 0.462021 
11.0625 -16.2344 0.427452 
11.0625 -16.9531 0.428383 
11.0625 -17.6563 0.419876 
11.0625 -18.3594 0.4338 
11.0625 -19.0625 0.395935 
11.0625 -19.7656 0.386093 
11.0625 -20.4688 0.391434 
11.125 -21.1719 0.347397 
11.125 -21.875 0.351196 
11.125 -22.5781 0.390305 
11.125 -23.2813 0.324928 
11.125 -23.9844 0.397408 
11.0625 -24.6563 1.04119 
11.0625 -25.3594 0.95739 
11 -25.9375 3.34024 
11.125 -26.0938 0.527802 
10.625 -25.9688 16.2888 
10.75 -26.1563 12.7636 
10.75 -26.8438 12.7577 
10.75 -27.5156 13.3782 
10.75 -28.2031 13.4082 
10.75 -28.8906 13.4285 
10.75 -29.5938 13.4623 
10.75 -30.2969 13.4762 
10.75 -30.9844 13.493 
10.75 -31.6875 13.5028 
10.75 -32.375 13.5454 
10.75 -33.0781 13.5361 
10.75 -33.7656 13.5046 
10.75 -34.4688 13.4611 
10.75 -35.1563 13.4602 
10.75 -35.8438 13.4722 
10.75 -36.5469 13.4872 
10.6875 -37.125 15.4065 
10.6875 -37.8125 15.4049 
10.8125 -37.9844 12.5919 
10.8125 -38.6875 12.5636 
10.8125 -39.3906 12.5482 
10.6875 -39.8438 16.2402 
10.6875 -40.5469 16.3328 
10.6875 -41.2344 16.241 
10.6875 -41.9219 16.4189 
11.25 -43.2344 -3.32858 
11.25 -43.9219 -2.9426 
11.25 -44.625 -2.96208 
11.25 -45.3438 -2.97405 
11.25 -46.0469 -3.08533 
11.25 -46.7188 -2.43844 
11.5625 -47.5625 -14.6026 
11.625 -48.2969 -14.9391 
11.625 -49.0156 -15.0036 
11.625 -49.7344 -15.0125 
11.625 -50.4531 -15.036 
11.625 -51.1875 -15.1965 
11.625 -51.8906 -15.1299 
11.625 -52.5938 -15.0953 
11.625 -53.3125 -15.1602 
11.625 -54.0156 -15.1369 
11.625 -54.7344 -15.1308 
11.625 -55.4531 -15.1737 
11.625 -56.1563 -15.1271 
11.625 -56.875 -15.1318 
11.625 -57.6094 -15.1859 
11.625 -58.3125 -15.1725 
11.625 -59.0313 -15.1332 
11.625 -59.6406 -13.7374 
11.625 -60.3594 -13.7923 
11.9375 -60.4375 -13.8281 
11.9375 -59.7031 -13.7009 
11.9375 -59.0469 -14.2974 
11.9375 -58.3906 -15.16 
11.9375 -57.6719 -15.1362 
11.9375 -56.9688 -15.1615 
11.9375 -56.25 -15.0818 
11.9375 -55.5313 -15.1138 
11.9375 -54.8125 -15.0854 
11.9375 -54.1094 -15.0866 
11.9375 -53.3906 -15.1398 
11.9375 -52.6719 -15.1032 
11.9375 -51.9531 -15.1335 
11.9375 -51.25 -15.1779 
11.9375 -50.5156 -15.0926 
11.9375 -49.7969 -14.9869 
11.9375 -49.0938 -15.0223 
11.9375 -48.375 -14.9902 
11.9375 -47.6563 -15.0397 
11.625 -46.125 -3.11868 
11.625 -45.4063 -3.00021 
11.625 -44.7031 -2.94091 
11.625 -43.9844 -2.89885 
11.0625 -41.9844 16.4273 
11.625 -43.2813 -3.04572 
